      -0.08555030883139213        0.3156836148089626                    -0.945
        0.3123667504178652        0.1147955279328558       -0.9429999999999999
        0.1440545940855321       -0.3062144247465371       -0.9409999999999999
       -0.2972100587834374       -0.1730467594551995       -0.9389999999999999
       -0.2014896876231516        0.2853645138792222       -0.9370000000000001
        0.2707161870259195        0.2291020429462544       -0.9350000000000001
        0.2556060883757044        -0.253330865836107       -0.9330000000000001
       -0.2333013423752457       -0.2807302684890042                    -0.931
       -0.3042117546120977        0.2107467872965774                    -0.929
        0.1858118879536405        0.3257989292418005                    -0.927
        0.3452537874646182       -0.1586657563601429                    -0.925
       -0.1295006149731254       -0.3623542337569444                    -0.923
       -0.3768962534085771       0.09853027030602131                    -0.921
        0.0659883863269586        0.3886959388390418                    -0.919
         0.397591352282148      -0.03212657140830479                    -0.917
      0.002787705679359538       -0.4034442076632719                    -0.915
        -0.406141356003253      -0.03847335368588236                    -0.913
      -0.07463803222293679        0.4055960603184994                    -0.911
         0.401749047750878        0.1109806407949726                    -0.909
        0.1471939026670304       -0.3945693285313099                    -0.907
       -0.3840547733440475       -0.1829670218144579                    -0.905
       -0.2179883904539186        0.3702324426995964                    -0.903
        0.3531586640272497         0.251948324111291                    -0.901
        0.2845418008434011          -0.3329188543366                    -0.899
       -0.3096270884753728       -0.3154711810645525                    -0.897
       -0.3444488844999016        0.2834254151743867                    -0.895
        0.2544829252493279         0.371200001019053                    -0.893
        0.3954648125724839       -0.2229945784475718                    -0.891
       -0.1891797975324337       -0.4170012040816998                    -0.889
       -0.4355869419830202        0.1532808402047726                    -0.887
        0.1155609614116522        0.4510218001356638                    -0.885
        0.4631295140032773      -0.07630238042871389                    -0.883
      -0.03580406882929015       -0.4717595453780108                    -0.881
       -0.4767886414311174     -0.005620622943171128                    -0.879
      -0.04764648124173339        0.4781221735344232                    -0.877
        0.4756952430823881       0.08993906664396568                    -0.875
          0.13215745155698       -0.4694735434483656                    -0.873
       -0.4594539692100704       -0.1739570354343615                    -0.871
       -0.2149924142915127        0.4456649658623691                    -0.869
         0.428166615386233        0.2549202806147398                    -0.867
        0.2934023293862949       -0.4070504552395147                    -0.865
         -0.38243903056241       -0.3301081457681467                    -0.863
       -0.3647180500134525        0.3544851816287739                    -0.861
        0.3233710708038251        0.3969258754064638                    -0.859
        0.4264416554605185        -0.289306955478247                    -0.857
       -0.2525297155981964       -0.4529941972474858                    -0.855
       -0.4763335185472428        0.2133011465238842                    -0.853
        0.1719060299508025        0.4962331275384119                    -0.851
        0.5124921249425215       -0.1286499975588767                    -0.849
      -0.08385720385610634       -0.5249371099107354                    -0.847
       -0.5334238724753487       0.03786782636226761                    -0.845
     -0.008964587187642479         0.537838857072037                    -0.843
        0.5381003834585097       0.05627590356275743                    -0.841
        0.1036942984114649       -0.5341596132963948                    -0.839
         -0.52600125270986       -0.1508432369967512                    -0.837
       -0.1973445171491145        0.5136439832716654                    -0.835
        0.4971406160743836        0.2428213496568667                    -0.833
        0.2869014508609729       -0.4765779658081863                    -0.831
       -0.4520764440640121        -0.329220121988979                    -0.829
       -0.3694232897322426        0.4237893733960392                    -0.827
        0.3919020259900999        0.4071704827524401                    -0.825
        0.4421377191942712        -0.356630393076204                    -0.823
       -0.3182196934749494       -0.4740202808791087                    -0.821
       -0.5025353506562258        0.2769426318587015                    -0.819
        0.2330974194284433        0.5274244903830314       -0.8169999999999999
        0.5484559381986822       -0.1870055717207464       -0.8149999999999999
       -0.1390095001758278       -0.5654267051182378       -0.8129999999999999
       -0.5781644525161854       0.08946991587488821       -0.8110000000000001
       0.03876306549507991        0.5865291337635533       -0.8090000000000001
        0.5904143851243826       0.01272217898778861       -0.8070000000000001
       0.06458735400599182       -0.5897486529891396                    -0.805
       -0.5844960466089349        -0.116427537543855                    -0.803
       -0.1678345567982825        0.5746569076799861                    -0.801
        0.5602680903909619        0.2184002447106342                    -0.799
         0.267719719165159       -0.5414029478772057                    -0.797
       -0.5181710233934683       -0.3153946583494491                    -0.795
       -0.3610365456463751        0.4907174469159752                    -0.793
        0.4592220402844797        0.4042698575419144                    -0.791
        0.4447351683548604       -0.4238981363822846                    -0.789
       -0.3849911202054079       -0.4820921461328583                    -0.787
       -0.5160224148101101         0.342776701970164                    -0.785
        0.2975589346425968        0.5462322586724102                    -0.783
        0.5724551463403083       -0.2496679903962387                    -0.781
       -0.1994577125563619        -0.594454052809621                    -0.779
       -0.6120235596312322        0.1473029614648514                    -0.777
       0.09359677449199433        0.6249917149888427                    -0.775
        0.6332216372943683      -0.03874736200361902                    -0.773
       0.01682503745389754       -0.6366128479026126                    -0.771
       -0.6351023206651868      -0.07269141823966804                    -0.769
       -0.1284173594014127         0.628665238266256                    -0.767
        0.6173154475988212         0.183566440712531                    -0.765
         0.237703695887174       -0.6011056088255856                    -0.763
       -0.5801270352149364       -0.2903990754336657                    -0.761
       -0.3412308914255084        0.5545092233109858                    -0.759
        0.5244190754977064        0.3897892164415672                    -0.757
        0.4356792091928742       -0.4900598194884699                    -0.755
       -0.4516696317466652       -0.4785243397757651                    -0.753
       -0.5179694881902874        0.4095199742428831                    -0.751
        0.3639136563101185        0.5536838906370682                    -0.749
         0.585363909205775       -0.3151826356247014                    -0.747
       -0.2636855744874693       -0.6127356018767094                    -0.745
       -0.6355570712301961        0.2098051696438758                    -0.743
        0.1539452757537715        0.6536205719475905                    -0.741
        0.6667543590068824      -0.09652784440419916                    -0.739
      -0.03798970210399607        -0.674824260481238                    -0.737
       -0.6777349609645066      -0.02122080786489585                    -0.735
      -0.08064729369565682        0.6754309839055108                    -0.733
          0.66789736347909        0.1398288663248057                    -0.731
        0.1983037458724669       -0.6551599990635478                    -0.729
       -0.6372856878928607       -0.2556128948369454                    -0.727
       -0.3113036492599509         0.614381834006701                    -0.725
         0.586595834187532        0.3649333189965441                    -0.723
        0.4160727283012429       -0.5541141441652254                    -0.721
       -0.5171610309190326       -0.4643096683235914                    -0.719
       -0.5092522336446307        0.4759970194528054                    -0.717
        0.4309170448698443        0.5505320158180091                    -0.715
        0.5878071278651583       -0.3822483229929381                    -0.713
       -0.3303479550481426       -0.6207650349331142                    -0.711
       -0.6491251677309532         0.275600284140387                    -0.709
        0.2184140232857601        0.6726412970016987                    -0.707
        0.6911036490874138       -0.1592191766655663                    -0.705
      -0.09846377752636304       -0.7043407446082038                    -0.703
       -0.7122209444102511       0.03661046767483347                    -0.701
      -0.02586705507979373        0.7146536891820393                    -0.699
        0.7115904215204438       0.08848769406170007                    -0.697
        0.1507666869809649       -0.7030251816946415                    -0.695
       -0.6889948709092678       -0.2122193861566878       -0.6929999999999999
       -0.2723650560330921        0.6695791784786103       -0.6909999999999999
        0.6449001719732166        0.3307306580722683       -0.6889999999999999
        0.3868545930814752       -0.6151215520624898       -0.6870000000000001
       -0.5804475764500845       -0.4402903712247445       -0.6850000000000001
       -0.4906101804517784        0.5411216599223074       -0.6830000000000001
        0.4974246601414833        0.5374083247244407                    -0.681
        0.5803045043700926       -0.4496728613200724                    -0.679
       -0.3982156703761045        -0.618946911994001                    -0.677
       -0.6530151187655679         0.343433042474936                    -0.675
        0.2857326551007692        0.6822227274204993                    -0.673
        0.7063197700959986       -0.2255468518324646                    -0.671
       -0.1633293789325307       -0.7250948310238557                    -0.669
        -0.738376876214622       0.09955193956692512                    -0.667
       0.03470059200897838        0.7460367745052696                    -0.665
        0.7479884967142116       0.03072798046103533                    -0.663
       0.09623029916603086       -0.7441899821432805                    -0.661
       -0.7346436642437411       -0.1612999894188764                    -0.659
       -0.2254317193311918        0.7193966499222684                    -0.657
        0.6985405496746206        0.2881251472195349                    -0.655
        0.3488888466420957       -0.6722109584711842                    -0.653
       -0.6405865900787602       -0.4072441781183205                    -0.651
       -0.4627290769204018        0.6038880702351992                    -0.649
        0.5623763968069778        0.5149017268512512                    -0.647
        0.5633440907191506       -0.5163510777095497                    -0.645
       -0.4661479599478582       -0.6076652692366495                    -0.643
       -0.6475046613182066        0.4121367656145162                    -0.641
        0.3547183530472298        0.6825349002149712                    -0.639
        0.7124645415969246       -0.2943217235731741                    -0.637
       -0.2314007963492041         -0.73704048155373                    -0.635
       -0.7560500845363231        0.1664309757004951                    -0.633
       0.09990553708915167        0.7693230034640379                    -0.631
        0.7767326765822105      -0.03233185935629416                    -0.629
       0.03577246781125379       -0.7781974881395421                    -0.627
       -0.7736815825503652       -0.1038836311569942                    -0.625
       -0.1714756449918771        0.7631953243925303                    -0.623
        0.7467953993463202        0.2380244347019234                    -0.621
        0.3030119207753662       -0.7245845539811232                    -0.619
       -0.6967109751262947        -0.365930071377808                    -0.617
       -0.4262848916536954        0.6633673123902001                    -0.615
        0.6247893502065714        0.4836003183088801                    -0.613
         0.537421988673298       -0.5812543385562274                    -0.611
       -0.5330789942203947       -0.5873208543215305                    -0.609
       -0.6328966104484932          0.48061718704475                    -0.607
        0.4242573282110058        0.6737809135462796                    -0.605
        0.7096403614984282       -0.3644194799024609                    -0.603
       -0.3015522080031157       -0.7401792119807512                    -0.601
       -0.7651418170368784        0.2361292015433586                    -0.599
        0.1686456845196368        0.7843147538411496                    -0.597
        0.7975286339811111      -0.09961464741805306                    -0.595
      -0.02956292727323402       -0.8046595760512874                    -0.593
       -0.8056303289377977      -0.04097283362882981                    -0.591
       -0.1114503192500099        0.8004110358678663                    -0.589
        0.7890196320787546        0.1813257295430153                    -0.587
        0.2500579959265798       -0.7715218718048003                    -0.585
       -0.7480309831696297       -0.3171129896713115                    -0.583
       -0.3819676903412907        0.7187069524746089                    -0.581
        0.6837554422800721        0.4441142816352374                    -0.579
        0.5030641424466403       -0.6434263505518143                    -0.577
        -0.598012020974277       -0.5583517016811724                    -0.575
       -0.6095381263401279        0.5478451172893359                    -0.573
        0.4932961771843185        0.6562148135902889                    -0.571
        0.6980066589848667       -0.4347708638038938                    -0.569
       -0.3727069353746752       -0.7345750746680817       -0.5669999999999999
       -0.7656207332676924        0.3075709557006984       -0.5649999999999999
        0.2398547703680727        0.7908860152586333       -0.5629999999999999
        0.8101571398246281       -0.1700717754102011       -0.5610000000000001
      -0.09875300687687505       -0.8232659616629221       -0.5590000000000001
       -0.8300914187334438       0.02644308123306419       -0.5570000000000001
      -0.04630398223672544        0.8305606186360036                    -0.555
         0.824649554084895        0.1189290248323917                    -0.553
        0.1908720647060679        -0.812383440817723                    -0.551
       -0.7938366742038396       -0.2615766325362167                    -0.549
       -0.3304940929184346        0.7691324037810533                    -0.547
        0.7384417279290918        0.3970879177878587                    -0.545
        0.4608378784769527       -0.7019825138569061                    -0.543
       -0.6600178510176605       -0.5212441235525147                    -0.541
       -0.5778311103770049        0.6128541489461238                    -0.539
        0.5608388933156598        0.6301513593926985                    -0.537
        0.6777890014254951       -0.5043580767139852                    -0.535
       -0.4438333232172323       -0.7203630898386921                    -0.533
       -0.7575306511260848        0.3797187282772475                    -0.531
        0.3124974377196605        0.7889894494976766                    -0.529
        0.8144804431830133       -0.2426779917347314                    -0.527
        -0.170790461654372       -0.8337899125126703                    -0.525
        -0.846751242349375       0.09738240898534979                    -0.523
       0.02301469763693588        0.8532463440839817                    -0.521
        0.8532067051827021       0.05174280849816239                    -0.519
        0.1263156294783385        -0.846614057141441                    -0.517
        -0.833500655650651       -0.2001291009072266                    -0.515
        -0.272612818878554        0.8139491697784873                    -0.513
        0.7880921800157437        0.3432050637709659                    -0.511
        0.4113571684718137       -0.7561112880699851                    -0.509
       -0.7182358443271304       -0.4765377969518199                    -0.507
       -0.5382370997334799        0.6747413018857613                    -0.505
        0.6259472090019309        0.5959707136619157                    -0.503
        0.6492835745284504       -0.5722148546197993                    -0.501
       -0.5139445844021352       -0.6977535124696375                    -0.499
       -0.7409946016854884        0.4515728072780339                    -0.497
        0.3855687149813196        0.7786602378622232                    -0.495
        0.8104459187394177       -0.3164307393389921                    -0.493
       -0.2446827741673866       -0.8360917055118725                    -0.491
        -0.855384345185802        0.1708701905279466                    -0.489
       0.09555567576596258        0.8681590365992341                    -0.487
        0.8743008255448733      -0.01931492820470567                    -0.485
       0.05726775945012998       -0.8737456172866116                    -0.483
       -0.8664807977046922       -0.1336039939861093                    -0.481
       -0.2091058181598467        0.8525454573286407                    -0.479
        0.8320302155896356        0.2831902546802495                    -0.477
        0.3552838224692618       -0.8050766457248838                    -0.475
       -0.7718763038707189       -0.4248269901064168                    -0.473
       -0.4912785317732001        0.7326693689644524                    -0.471
        0.6877429031136749        0.5541197516934173                    -0.469
        0.6128585440145414       -0.6374287450596939                    -0.467
       -0.5821010522446903       -0.6670332562740964                    -0.465
       -0.7162163260625602        0.5221735097469501                    -0.463
        0.4580962269836494        0.7600176621785475                    -0.461
        0.7980877435013517       -0.3903523455455607                    -0.459
       -0.3194543838227919        -0.830120410938317                    -0.457
       -0.8558553301355806        0.2459403461787359                    -0.455
         0.170369626316138        0.8750801051497511                    -0.453
        0.8876320259462116      -0.09331873613923446                    -0.451
      -0.01537689283611859       -0.8933994353964561                    -0.449
       -0.8923227043707089      -0.06285850192730158                    -0.447
       -0.1407864559002656        0.8843948065400671                    -0.445
        0.8696614875924434        0.2178070177898276                    -0.443
        0.2933259106516676       -0.8482210267025746                    -0.441
       -0.8202235912564901       -0.3667591312378006                    -0.439
       -0.4375374796047304        0.7858701889887032                    -0.437
        0.7454112248222365        0.5051109837540786                    -0.435
        0.5689531848222702       -0.6991446727828196                    -0.433
       -0.6474138763652781       -0.6285652493494086                    -0.431
       -0.6834798764341744        0.5906049936374783                    -0.429
        0.5291441061574095        0.7332649691065818                    -0.427
        0.7775270410249233       -0.4634940134187572                    -0.425
       -0.3941507370244521       -0.8159143315955918                    -0.423
       -0.8481196048250773        0.3216397610858377                    -0.421
        0.2465120374357394        0.8738826096217275                    -0.419
        0.8929921818439447       -0.1693397861271562                    -0.417
      -0.09071212333034383        -0.905287971134545                    -0.415
       -0.9106617784576111        0.0112305501388343                    -0.413
      -0.06849566306054371        0.9090584932455646                    -0.411
        0.9004766221484294         0.147854161132363                    -0.409
        0.2262342215243959       -0.8849684045271055                    -0.407
       -0.8626395130274338        -0.303031467943169                    -0.405
       -0.3776525438923735        0.8336483407838218                    -0.403
        0.7982048800088799         0.449519709834852                    -0.401
        0.5180753282730504       -0.7565691998983114                    -0.399
       -0.7090495349013618       -0.5827862018409173                    -0.397
       -0.6431477305830349        0.6559999974435153                    -0.395
        0.5978179321255237        0.6986878559336513                    -0.393
        0.7489707605103733       -0.5349409312256008                    -0.391
       -0.4678435339940606       -0.7936002946697716                    -0.389
       -0.8322231028425288        0.3970336347151886                    -0.387
        0.3230486268104405        0.8645314249441074                    -0.385
        0.8902655506319602       -0.2464513123478399                    -0.383
       -0.1678256081875907       -0.9092159068320711                    -0.381
       -0.9212247617641486       0.08777208162387339                    -0.379
      0.006903349755069778        0.9261875316382526                    -0.377
        0.9240536792490044       0.07416062207383348                    -0.375
        0.1547972865705206       -0.9148271968357763                    -0.373
       -0.8985666687844809       -0.2343863087929007                    -0.371
         -0.31231435142417        0.8753849129922792                    -0.369
        0.8454482029767904        0.3879798140152603                    -0.367
          0.46079748948194       -0.8089750760605305                    -0.365
       -0.7662347361741246       -0.5302031017262815                    -0.363
        -0.595657689115292        0.7175450629736295                    -0.361
         0.663270242031104        0.6566517996899123                    -0.359
        0.7127094653749161       -0.6038180338189655                    -0.357
       -0.5396367020226447       -0.7633919241321089                    -0.355
       -0.8083010608906298        0.4712116243929922                    -0.353
        0.3990616118367919         0.847082540227469                    -0.351
        0.8794286061135904       -0.3237349637421131                    -0.349
       -0.2458052896180724       -0.9050805265807985                    -0.347
       -0.9238306638791546        0.1658671289816058                    -0.345
       0.08453140303214408        0.9355241535638817                    -0.343
        0.9400601789522373      -0.00242073300624065                    -0.341
       0.07983533881645628       -0.9373928305017388                    -0.339
       -0.9275315428570754       -0.1616051886703307                    -0.337
       -0.2422599741320329        0.9105411055704991                    -0.335
        0.8865412467920367        0.3211784826796792                    -0.333
        0.3977519285090456        -0.855705792528796                    -0.331
       -0.8182614073591421       -0.4713886604773562                    -0.329
       -0.5415187446812801        0.7744859257331992                    -0.327
        0.7247062861705799        0.6075983860946684                    -0.325
        0.6691141548885277       -0.6692960837535294                    -0.323
       -0.6086727592896095       -0.7255869845158285                    -0.321
       -0.7765759103701287        0.5432944463482081                    -0.319
        0.4736565000540153        0.8216815197852393                    -0.317
        0.8605490863398394       -0.4002877340110083                    -0.315
       -0.3237463940219197       -0.8928713638356893                    -0.313
       -0.9183910179153637        0.2446158993450382                    -0.311
        0.1635003840610549        0.9369026760618669                    -0.309
        0.9482545796445782      -0.08102007271710084                    -0.307
      0.002193474263380036       -0.9523498247338821                    -0.305
       -0.9491471815684488      -0.08550220886427561                    -0.303
       -0.1682665001382967        0.9386614858036995                    -0.301
        0.9209635979719935        0.2498500574554275                    -0.299
         0.329624834348804       -0.8961799309181854                    -0.297
       -0.8644915483132309       -0.4069758750773721                    -0.295
       -0.4813060664150511        0.8261328406691448                    -0.293
         0.781389788549799        0.5520407578703771                    -0.291
        0.6186322145055616        -0.730597825876826                    -0.289
       -0.6741393193339352       -0.6805638677802242                    -0.287
       -0.7373543313598337        0.6124406828623424                    -0.285
        0.5459691490778485        0.7885611506124367                    -0.283
        0.8337842565325976       -0.4752292221216871                    -0.281
       -0.4007588389450684       -0.8726690970851442                    -0.279
       -0.9049094214223099         0.323125268311131                    -0.277
        0.2429207788622679        0.9302496950802774                    -0.275
         0.948487127091152       -0.1607581094140291                    -0.273
      -0.07726577620930156       -0.9594732929200135                    -0.271
       -0.9631153402439105     -0.006916746840548076                    -0.269
      -0.09114393787371761         0.959376767797132                    -0.267
        0.9482777707958699        0.1747691889733877                    -0.265
         0.257149782006823       -0.9298951497958484                    -0.263
       -0.9043617832065032        -0.337651840029865                    -0.261
       -0.4156552160253674        0.8718656670559434                    -0.259
        0.8326485289486085         0.490558281185547                    -0.257
        0.5617825756887218       -0.7870040264525624                    -0.255
       -0.7352755433764572       -0.6287772859387142                    -0.253
       -0.6910235135439298        0.6778536005137114                    -0.251
        0.6151729004285387        0.7480383028818373                    -0.249
        0.7993783959286449       -0.5477090287027836                    -0.247
       -0.4759748367423601       -0.8446436851051949                    -0.245
       -0.8834803371984188        0.4005165337208546                    -0.243
        0.3219095175172962        0.9155835639261889                    -0.241
        0.9407000174214928       -0.2407539765470204                    -0.239
       -0.1576702961845805       -0.9586297917867286                    -0.237
        -0.969228014891809        0.0732943050235372                    -0.235
      -0.01172760251891496        0.9724060177411277                    -0.233
        0.9681320719822563       0.09674342974767601                    -0.231
        0.1811005891847627       -0.9564316894566657                    -0.229
       -0.9373874810681589       -0.2641509234068504                    -0.227
       -0.3452556965064899        0.9111385756457788                    -0.225
        0.8778796028748772        0.4237905176573066                    -0.223
        0.4991501587452514       -0.8378592477406872                    -0.221
       -0.7913783872432353       -0.5707532288163563                    -0.219
       -0.6380466691629315        0.7387878233769751                    -0.217
        0.6804856294986819        0.7005100342220537                    -0.215
        0.7576595250849633        -0.616914130206164                    -0.213
       -0.5485565376968332       -0.8090517442970275                    -0.211
       -0.8542871427522285        0.4759332702472412                    -0.209
        0.3995979809313131        0.8930131318382826                    -0.207
        0.9249268365523285       -0.3201333269519158                    -0.205
       -0.2381465119931066       -0.9497774680552898                    -0.203
       -0.9673682970564178        0.1542646357729672                    -0.201
       0.06912988649918297        0.9775582124828219                    -0.199
        0.9802628530797541       0.01660538683500314                    -0.197
        0.1022836844164253       -0.9754553028725618                    -0.195
       -0.9631663447812583       -0.1872474092763642                    -0.193
       -0.2708439257274989        0.9434842700843066                    -0.191
        0.9165542448548086        0.3524305835744557                    -0.189
        0.4313796693396926       -0.8825772379120014                    -0.187
       -0.8418085182191964       -0.5070832462757969                    -0.185
       -0.5789578457689669        0.7945557329870304                    -0.183
        0.7411765809875355        0.6464489738530238                    -0.181
         0.709035397960774       -0.6820760987152438                    -0.179
       -0.6177035800356727       -0.7662331807035723                    -0.177
       -0.8175994294026175        0.5485491528026583                    -0.175
        0.4751400385890674        0.8627357322665958                    -0.173
        0.9012912545056817       -0.3980365241426649                    -0.171
       -0.3178276754167164       -0.9329654702823713                    -0.169
       -0.9575105091886972        0.2351268270385195                    -0.167
        0.1505668818303472        0.9747330989024053                    -0.165
        0.9844960887778225       -0.0647954564855415                    -0.163
       0.02153008928239246         -0.98671954235005                    -0.161
       -0.9813813900511054       -0.1077477018843573                    -0.159
       -0.1931957224243284        0.9685176368228623                    -0.157
        0.9482221227434393        0.2772179754992914                    -0.155
        0.3591688190075691       -0.9206458382313515                    -0.153
       -0.8859957988284749       -0.4384181160242956                    -0.151
       -0.5143560903743293        0.8445334879652997                    -0.149
        0.7965728794480379        0.5863980284140302                    -0.147
        0.6539887906912087       -0.7424780546590253                    -0.145
        -0.682660432594734       -0.7166070986039497                    -0.143
       -0.7737695628912176        0.6175756338644961                    -0.141
        0.5477200026094479        0.8250344227615636                    -0.139
        0.8700049666837381       -0.4736268129504789                    -0.137
       -0.3958621890269304       -0.9083326082987481                    -0.135
       -0.9397195935633894        0.3150207699074113                    -0.133
        0.2317211526446968         0.963921318063364                    -0.131
        0.9807482364334061       -0.1466011484701389                    -0.129
      -0.06031288858590074       -0.9900673489568398                    -0.127
        -0.991803253671683      -0.02648218280774977                    -0.125
       -0.1131183897276805         0.985938755656464                    -0.123
        0.9725150285797657         0.198930940747028                    -0.121
        0.2832610410526692       -0.9516313270493769                    -0.119
       -0.9234442517604682       -0.3654609608296747                    -0.117
       -0.4448990208967803        0.8881665728933319                    -0.115
        0.8460656206200071        0.5209644571416384                    -0.113
        0.5930721262184762       -0.7974612549225797                    -0.111
       -0.7427234301768508       -0.6606670161785986                    -0.109
       -0.7232285271960285        0.6822693730850472                    -0.107
        0.6165603955348242        0.7802744893035662                    -0.105
        0.8313648860742526       -0.5460983667827117                    -0.103
       -0.4714218720012188       -0.8761052554338815                    -0.101
       -0.9141497412713339        0.3931020866563206                    -0.099
         0.311738398386924        0.9452037721947344                    -0.097
        0.9690263466486704       -0.2279538100158252                    -0.095
       -0.1423901590259094       -0.9854319066341297                    -0.093
       -0.9942917854407669       0.05570319025883332                    -0.091
      -0.03144248025476071         0.995535218078913                    -0.089
        0.9891499064687009        0.1183784715772275      -0.08699999999999999
        0.2044377749436283       -0.9751821348733264      -0.08500000000000001
       -0.9537364345310491       -0.2889598820736226                    -0.083
       -0.3712958652077545        0.9249747999159895                    -0.081
        0.8891154625166718        0.4508133697149682                    -0.079
        0.5269014807828929       -0.8464312314351324                    -0.077
       -0.7972474134524077       -0.5989754266607652                    -0.075
       -0.6664810821723679        0.7419393284537149                    -0.073
        0.6809294392308508        0.7288992377474126      -0.07099999999999999
        0.7857496010166787       -0.6146841176589243      -0.06900000000000001
        -0.543710072054563       -0.8365945000694316                    -0.067
       -0.8810422597635341        0.4685504631421947                    -0.065
        0.3897807384636296        0.9187502249919439                    -0.063
        0.9494274075249317       -0.3080042172446465                    -0.061
       -0.2238474596648807       -0.9728367359436935                    -0.059
       -0.9887968912365028        0.1379554561480895                    -0.057
       0.05098667368569632        0.9971837138193085                    -0.055
        0.9979311710437702       0.03639200268204045                    -0.053
         0.123510394286779       -0.9910318776422504                    -0.051
          -0.9765371650046       -0.2097001796965814                    -0.049
       -0.2943000323554708        0.9545566986594189                    -0.047
        0.9252576468158838        0.3766607054216475                    -0.045
        0.4561500246292001       -0.8888634062839915                    -0.043
       -0.8456518955052037       -0.5321577506984712                    -0.041
       -0.6041002738203816         0.795953427764552                    -0.039
        0.7401481808945564        0.6714251040276042                    -0.037
        0.7336151228339873       -0.6786632828945984                    -0.035
       -0.6119695358542228       -0.7901925633580509                    -0.033
       -0.8407226882356068         0.540577803360344                    -0.031
        0.4650350891661855        0.8848171369521489                    -0.029
        0.9221369167700476        -0.385920337284562                    -0.027
       -0.3038399858183433        -0.952395014171068                    -0.025
       -0.9753586066568132        0.2194233087447185                    -0.023
        0.1333175815071087         0.990850857829318                    -0.021
        0.9987522818844876      -0.04618310763178253                    -0.019
       0.04131185534006004       -0.9990016669697612                    -0.017
       -0.9915965502571118       -0.1284962315330499                    -0.015
       -0.2147012844828607         0.976593241038156                    -0.013
        0.9541063916322772        0.2992657572233013                    -0.011
        0.3815409551274478       -0.9243081193846752     -0.008999999999999999
       -0.8874266864923869       -0.4608957323529291                    -0.007
       -0.5367213434837315        0.8437447478052934                    -0.005
        0.7935971800802814        0.6084361229978257                    -0.003
        0.6754899565162916        -0.737368509393789                    -0.001
       -0.6754899565162916        -0.737368509393789                     0.001
       -0.7935971800802814        0.6084361229978257                     0.003
        0.5367213434837315        0.8437447478052934                     0.005
        0.8874266864923869       -0.4608957323529291                     0.007
       -0.3815409551274478       -0.9243081193846752      0.008999999999999999
       -0.9541063916322772        0.2992657572233013                     0.011
        0.2147012844828607         0.976593241038156                     0.013
        0.9915965502571118       -0.1284962315330499                     0.015
      -0.04131185534006004       -0.9990016669697612                     0.017
       -0.9987522818844876      -0.04618310763178253                     0.019
       -0.1333175815071087         0.990850857829318                     0.021
        0.9753586066568132        0.2194233087447185                     0.023
        0.3038399858183433        -0.952395014171068                     0.025
       -0.9221369167700476        -0.385920337284562                     0.027
       -0.4650350891661855        0.8848171369521489                     0.029
        0.8407226882356068         0.540577803360344                     0.031
        0.6119695358542228       -0.7901925633580509                     0.033
       -0.7336151228339873       -0.6786632828945984                     0.035
       -0.7401481808945564        0.6714251040276042                     0.037
        0.6041002738203816         0.795953427764552                     0.039
        0.8456518955052037       -0.5321577506984712                     0.041
       -0.4561500246292001       -0.8888634062839915                     0.043
       -0.9252576468158838        0.3766607054216475                     0.045
        0.2943000323554708        0.9545566986594189                     0.047
           0.9765371650046       -0.2097001796965814                     0.049
        -0.123510394286779       -0.9910318776422504                     0.051
       -0.9979311710437702       0.03639200268204045                     0.053
      -0.05098667368569632        0.9971837138193085                     0.055
        0.9887968912365028        0.1379554561480895                     0.057
        0.2238474596648807       -0.9728367359436935                     0.059
       -0.9494274075249317       -0.3080042172446465                     0.061
       -0.3897807384636296        0.9187502249919439                     0.063
        0.8810422597635341        0.4685504631421947                     0.065
         0.543710072054563       -0.8365945000694316                     0.067
       -0.7857496010166787       -0.6146841176589243       0.06900000000000001
       -0.6809294392308508        0.7288992377474126       0.07099999999999999
        0.6664810821723679        0.7419393284537149                     0.073
        0.7972474134524077       -0.5989754266607652                     0.075
       -0.5269014807828929       -0.8464312314351324                     0.077
       -0.8891154625166718        0.4508133697149682                     0.079
        0.3712958652077545        0.9249747999159895                     0.081
        0.9537364345310491       -0.2889598820736226                     0.083
       -0.2044377749436283       -0.9751821348733264       0.08500000000000001
       -0.9891499064687009        0.1183784715772275       0.08699999999999999
       0.03144248025476071         0.995535218078913                     0.089
        0.9942917854407669       0.05570319025883332                     0.091
        0.1423901590259094       -0.9854319066341297                     0.093
       -0.9690263466486704       -0.2279538100158252                     0.095
        -0.311738398386924        0.9452037721947344                     0.097
        0.9141497412713339        0.3931020866563206                     0.099
        0.4714218720012188       -0.8761052554338815                     0.101
       -0.8313648860742526       -0.5460983667827117                     0.103
       -0.6165603955348242        0.7802744893035662                     0.105
        0.7232285271960285        0.6822693730850472                     0.107
        0.7427234301768508       -0.6606670161785986                     0.109
       -0.5930721262184762       -0.7974612549225797                     0.111
       -0.8460656206200071        0.5209644571416384                     0.113
        0.4448990208967803        0.8881665728933319                     0.115
        0.9234442517604682       -0.3654609608296747                     0.117
       -0.2832610410526692       -0.9516313270493769                     0.119
       -0.9725150285797657         0.198930940747028                     0.121
        0.1131183897276805         0.985938755656464                     0.123
         0.991803253671683      -0.02648218280774977                     0.125
       0.06031288858590074       -0.9900673489568398                     0.127
       -0.9807482364334061       -0.1466011484701389                     0.129
       -0.2317211526446968         0.963921318063364                     0.131
        0.9397195935633894        0.3150207699074113                     0.133
        0.3958621890269304       -0.9083326082987481                     0.135
       -0.8700049666837381       -0.4736268129504789                     0.137
       -0.5477200026094479        0.8250344227615636                     0.139
        0.7737695628912176        0.6175756338644961                     0.141
         0.682660432594734       -0.7166070986039497                     0.143
       -0.6539887906912087       -0.7424780546590253                     0.145
       -0.7965728794480379        0.5863980284140302                     0.147
        0.5143560903743293        0.8445334879652997                     0.149
        0.8859957988284749       -0.4384181160242956                     0.151
       -0.3591688190075691       -0.9206458382313515                     0.153
       -0.9482221227434393        0.2772179754992914                     0.155
        0.1931957224243284        0.9685176368228623                     0.157
        0.9813813900511054       -0.1077477018843573                     0.159
      -0.02153008928239246         -0.98671954235005                     0.161
       -0.9844960887778225       -0.0647954564855415                     0.163
       -0.1505668818303472        0.9747330989024053                     0.165
        0.9575105091886972        0.2351268270385195                     0.167
        0.3178276754167164       -0.9329654702823713                     0.169
       -0.9012912545056817       -0.3980365241426649                     0.171
       -0.4751400385890674        0.8627357322665958                     0.173
        0.8175994294026175        0.5485491528026583                     0.175
        0.6177035800356727       -0.7662331807035723                     0.177
        -0.709035397960774       -0.6820760987152438                     0.179
       -0.7411765809875355        0.6464489738530238                     0.181
        0.5789578457689669        0.7945557329870304                     0.183
        0.8418085182191964       -0.5070832462757969                     0.185
       -0.4313796693396926       -0.8825772379120014                     0.187
       -0.9165542448548086        0.3524305835744557                     0.189
        0.2708439257274989        0.9434842700843066                     0.191
        0.9631663447812583       -0.1872474092763642                     0.193
       -0.1022836844164253       -0.9754553028725618                     0.195
       -0.9802628530797541       0.01660538683500314                     0.197
      -0.06912988649918297        0.9775582124828219                     0.199
        0.9673682970564178        0.1542646357729672                     0.201
        0.2381465119931066       -0.9497774680552898                     0.203
       -0.9249268365523285       -0.3201333269519158                     0.205
       -0.3995979809313131        0.8930131318382826                     0.207
        0.8542871427522285        0.4759332702472412                     0.209
        0.5485565376968332       -0.8090517442970275                     0.211
       -0.7576595250849633        -0.616914130206164                     0.213
       -0.6804856294986819        0.7005100342220537                     0.215
        0.6380466691629315        0.7387878233769751                     0.217
        0.7913783872432353       -0.5707532288163563                     0.219
       -0.4991501587452514       -0.8378592477406872                     0.221
       -0.8778796028748772        0.4237905176573066                     0.223
        0.3452556965064899        0.9111385756457788                     0.225
        0.9373874810681589       -0.2641509234068504                     0.227
       -0.1811005891847627       -0.9564316894566657                     0.229
       -0.9681320719822563       0.09674342974767601                     0.231
       0.01172760251891496        0.9724060177411277                     0.233
         0.969228014891809        0.0732943050235372                     0.235
        0.1576702961845805       -0.9586297917867286                     0.237
       -0.9407000174214928       -0.2407539765470204                     0.239
       -0.3219095175172962        0.9155835639261889                     0.241
        0.8834803371984188        0.4005165337208546                     0.243
        0.4759748367423601       -0.8446436851051949                     0.245
       -0.7993783959286449       -0.5477090287027836                     0.247
       -0.6151729004285387        0.7480383028818373                     0.249
        0.6910235135439298        0.6778536005137114                     0.251
        0.7352755433764572       -0.6287772859387142                     0.253
       -0.5617825756887218       -0.7870040264525624                     0.255
       -0.8326485289486085         0.490558281185547                     0.257
        0.4156552160253674        0.8718656670559434                     0.259
        0.9043617832065032        -0.337651840029865                     0.261
        -0.257149782006823       -0.9298951497958484                     0.263
       -0.9482777707958699        0.1747691889733877                     0.265
       0.09114393787371761         0.959376767797132                     0.267
